0.941544 0 -0.33689 0.941544 0 -0.33689
0.955023 0.0502228 -0.292247 0.955023 0.0502228 -0.292247
0.964077 0.10022 -0.245992 0.964077 0.10022 -0.245992
0.968614 0.149505 -0.198585 0.968614 0.149505 -0.198585
0.968312 0.0500573 -0.244677 0.968312 0.0500573 -0.244677
0.970031 0 -0.24298 0.970031 0 -0.24298
0.979178 0.0500019 -0.196749 0.979178 0.0500019 -0.196749
0.968614 0.198585 -0.149505 0.968614 0.198585 -0.149505
0.964077 0.245992 -0.10022 0.964077 0.245992 -0.10022
0.955023 0.292247 -0.0502228 0.955023 0.292247 -0.0502228
0.968312 0.244677 -0.0500573 0.968312 0.244677 -0.0500573
0.979178 0.196749 -0.0500019 0.979178 0.196749 -0.0500019
0.977469 0.149256 -0.149256 0.977469 0.149256 -0.149256
0.98393 0.148389 -0.0993084 0.98393 0.148389 -0.0993084
0.987883 0.147141 -0.0493615 0.987883 0.147141 -0.0493615
0.98393 0.0993084 -0.148389 0.98393 0.0993084 -0.148389
0.987883 0.0493615 -0.147141 0.987883 0.0493615 -0.147141
0.989177 0 -0.14673 0.989177 0 -0.14673
0.993928 0.0493034 -0.0983716 0.993928 0.0493034 -0.0983716
0.993928 0.0983716 -0.0493034 0.993928 0.0983716 -0.0493034
0.997584 0.0491267 -0.0491267 0.997584 0.0491267 -0.0491267
0.998796 0 -0.0490677 0.998796 0 -0.0490677
0.998796 -0.0490677 0 0.998796 -0.0490677 0
0.997584 -0.0491267 0.0491267 0.997584 -0.0491267 0.0491267
0.993928 -0.0493034 0.0983716 0.993928 -0.0493034 0.0983716
0.987883 -0.0493615 0.147141 0.987883 -0.0493615 0.147141
0.993928 -0.0983716 0.0493034 0.993928 -0.0983716 0.0493034
0.989177 -0.14673 0 0.989177 -0.14673 0
0.987883 -0.147141 0.0493615 0.987883 -0.147141 0.0493615
0.979178 -0.0500019 0.196749 0.979178 -0.0500019 0.196749
0.968312 -0.0500573 0.244677 0.968312 -0.0500573 0.244677
0.955023 -0.0502228 0.292247 0.955023 -0.0502228 0.292247
0.939488 -0.0502772 0.338872 0.939488 -0.0502772 0.338872
0.964077 -0.10022 0.245992 0.964077 -0.10022 0.245992
0.968614 -0.149505 0.198585 0.968614 -0.149505 0.198585
0.957432 -0.149889 0.246692 0.957432 -0.149889 0.246692
0.98393 -0.0993084 0.148389 0.98393 -0.0993084 0.148389
0.977469 -0.149256 0.149256 0.977469 -0.149256 0.149256
0.968614 -0.198585 0.149505 0.968614 -0.198585 0.149505
0.98393 -0.148389 0.0993084 0.98393 -0.148389 0.0993084
0.979178 -0.196749 0.0500019 0.979178 -0.196749 0.0500019
0.970031 -0.24298 0 0.970031 -0.24298 0
0.968312 -0.244677 0.0500573 0.968312 -0.244677 0.0500573
0.964077 -0.245992 0.10022 0.964077 -0.245992 0.10022
0.957432 -0.246692 0.149889 0.957432 -0.246692 0.149889
0.955023 -0.292247 0.0502228 0.955023 -0.292247 0.0502228
0.941544 -0.33689 0 0.941544 -0.33689 0
0.939488 -0.338872 0.0502772 0.939488 -0.338872 0.0502772
0.919379 -0.0525839 0.389841 0.919379 -0.0525839 0.389841
0.899082 -0.0526256 0.434605 0.899082 -0.0526256 0.434605
0.876472 -0.0527492 0.478554 0.876472 -0.0527492 0.478554
0.851862 -0.0527896 0.5211 0.851862 -0.0527896 0.5211
0.891478 -0.105311 0.440654 0.891478 -0.105311 0.440654
0.902576 -0.157156 0.400823 0.902576 -0.157156 0.400823
0.881352 -0.157443 0.445456 0.881352 -0.157443 0.445456
0.824384 -0.0532225 0.563523 0.824384 -0.0532225 0.563523
0.795655 -0.0532589 0.603404 0.795655 -0.0532589 0.603404
0.764815 -0.0533664 0.642036 0.764815 -0.0533664 0.642036
0.732294 -0.0534014 0.678892 0.732294 -0.0534014 0.678892
0.785564 -0.106561 0.609535 0.785564 -0.106561 0.609535
0.802955 -0.159041 0.574429 0.802955 -0.159041 0.574429
0.773165 -0.159291 0.613875 0.773165 -0.159291 0.613875
0.842765 -0.105953 0.527751 0.842765 -0.105953 0.527751
0.831145 -0.15907 0.532818 0.831145 -0.15907 0.532818
0.81724 -0.211503 0.536084 0.81724 -0.211503 0.536084
0.857405 -0.158484 0.489632 0.857405 -0.158484 0.489632
0.868126 -0.210263 0.449607 0.868126 -0.210263 0.449607
0.875539 -0.259945 0.40726 0.875539 -0.259945 0.40726
0.852848 -0.261291 0.452082 0.852848 -0.261291 0.452082
0.827814 -0.26218 0.49597 0.827814 -0.26218 0.49597
0.800808 -0.262454 0.538354 0.800808 -0.262454 0.538354
0.834956 -0.31178 0.453478 0.834956 -0.31178 0.453478
0.838575 -0.359788 0.409079 0.838575 -0.359788 0.409079
0.814748 -0.361127 0.453621 0.814748 -0.361127 0.453621
0.93288 -0.102823 0.3452 0.93288 -0.102823 0.3452
0.923576 -0.155385 0.350517 0.923576 -0.155385 0.350517
0.911772 -0.207239 0.354576 0.911772 -0.207239 0.354576
0.941956 -0.152887 0.298907 0.941956 -0.152887 0.298907
0.946505 -0.202187 0.251494 0.946505 -0.202187 0.251494
0.896809 -0.259906 0.358027 0.896809 -0.259906 0.358027
0.879886 -0.310455 0.359747 0.879886 -0.310455 0.359747
0.860361 -0.360402 0.360402 0.860361 -0.360402 0.360402
0.838575 -0.409079 0.359788 0.838575 -0.409079 0.359788
0.879886 -0.359747 0.310455 0.879886 -0.359747 0.310455
0.896809 -0.358027 0.259906 0.896809 -0.358027 0.259906
0.875539 -0.40726 0.259945 0.875539 -0.40726 0.259945
0.916121 -0.257752 0.30706 0.916121 -0.257752 0.30706
0.916121 -0.30706 0.257752 0.916121 -0.30706 0.257752
0.911772 -0.354576 0.207239 0.911772 -0.354576 0.207239
0.932782 -0.25487 0.25487 0.932782 -0.25487 0.25487
0.946505 -0.251494 0.202187 0.946505 -0.251494 0.202187
0.941956 -0.298907 0.152887 0.941956 -0.298907 0.152887
0.923576 -0.350517 0.155385 0.923576 -0.350517 0.155385
0.902576 -0.400823 0.157156 0.902576 -0.400823 0.157156
0.93288 -0.3452 0.102823 0.93288 -0.3452 0.102823
0.919379 -0.389841 0.0525839 0.919379 -0.389841 0.0525839
0.903989 -0.427555 0 0.903989 -0.427555 0
0.899082 -0.434605 0.0526256 0.899082 -0.434605 0.0526256
0.891478 -0.440654 0.105311 0.891478 -0.440654 0.105311
0.881352 -0.445456 0.157443 0.881352 -0.445456 0.157443
0.876472 -0.478554 0.0527492 0.876472 -0.478554 0.0527492
0.857729 -0.514103 0 0.857729 -0.514103 0
0.851862 -0.5211 0.0527896 0.851862 -0.5211 0.0527896
0.868126 -0.449607 0.210263 0.868126 -0.449607 0.210263
0.852848 -0.452082 0.261291 0.852848 -0.452082 0.261291
0.834956 -0.453478 0.31178 0.834956 -0.453478 0.31178
0.814748 -0.453621 0.361127 0.814748 -0.453621 0.361127
0.827814 -0.49597 0.26218 0.827814 -0.49597 0.26218
0.81724 -0.536084 0.211503 0.81724 -0.536084 0.211503
0.800808 -0.538354 0.262454 0.800808 -0.538354 0.262454
0.857405 -0.489632 0.158484 0.857405 -0.489632 0.158484
0.831145 -0.532818 0.15907 0.831145 -0.532818 0.15907
0.802955 -0.574429 0.159041 0.802955 -0.574429 0.159041
0.842765 -0.527751 0.105953 0.842765 -0.527751 0.105953
0.824384 -0.563523 0.0532225 0.824384 -0.563523 0.0532225
0.803208 -0.595699 0 0.803208 -0.595699 0
0.795655 -0.603404 0.0532589 0.795655 -0.603404 0.0532589
0.785564 -0.609535 0.106561 0.785564 -0.609535 0.106561
0.773165 -0.613875 0.159291 0.773165 -0.613875 0.159291
0.764815 -0.642036 0.0533664 0.764815 -0.642036 0.0533664
0.740951 -0.671559 0 0.740951 -0.671559 0
0.732294 -0.678892 0.0534014 0.732294 -0.678892 0.0534014
0.678892 -0.0534014 0.732294 0.678892 -0.0534014 0.732294
0.642036 -0.0533664 0.764815 0.642036 -0.0533664 0.764815
0.603404 -0.0532589 0.795655 0.603404 -0.0532589 0.795655
0.563523 -0.0532225 0.824384 0.563523 -0.0532225 0.824384
0.609535 -0.106561 0.785564 0.609535 -0.106561 0.785564
0.613875 -0.159291 0.773165 0.613875 -0.159291 0.773165
0.574429 -0.159041 0.802955 0.574429 -0.159041 0.802955
0.5211 -0.0527896 0.851862 0.5211 -0.0527896 0.851862
0.478554 -0.0527492 0.876472 0.478554 -0.0527492 0.876472
0.434605 -0.0526256 0.899082 0.434605 -0.0526256 0.899082
0.389841 -0.0525839 0.919379 0.389841 -0.0525839 0.919379
0.440654 -0.105311 0.891478 0.440654 -0.105311 0.891478
0.445456 -0.157443 0.881352 0.445456 -0.157443 0.881352
0.400823 -0.157156 0.902576 0.400823 -0.157156 0.902576
0.527751 -0.105953 0.842765 0.527751 -0.105953 0.842765
0.489632 -0.158484 0.857405 0.489632 -0.158484 0.857405
0.449607 -0.210263 0.868126 0.449607 -0.210263 0.868126
0.532818 -0.15907 0.831145 0.532818 -0.15907 0.831145
0.536084 -0.211503 0.81724 0.536084 -0.211503 0.81724
0.538354 -0.262454 0.800808 0.538354 -0.262454 0.800808
0.49597 -0.26218 0.827814 0.49597 -0.26218 0.827814
0.452082 -0.261291 0.852848 0.452082 -0.261291 0.852848
0.40726 -0.259945 0.875539 0.40726 -0.259945 0.875539
0.453478 -0.31178 0.834956 0.453478 -0.31178 0.834956
0.453621 -0.361127 0.814748 0.453621 -0.361127 0.814748
0.409079 -0.359788 0.838575 0.409079 -0.359788 0.838575
0.338872 -0.0502772 0.939488 0.338872 -0.0502772 0.939488
0.292247 -0.0502228 0.955023 0.292247 -0.0502228 0.955023
0.244677 -0.0500573 0.968312 0.244677 -0.0500573 0.968312
0.196749 -0.0500019 0.979178 0.196749 -0.0500019 0.979178
0.245992 -0.10022 0.964077 0.245992 -0.10022 0.964077
0.246692 -0.149889 0.957432 0.246692 -0.149889 0.957432
0.198585 -0.149505 0.968614 0.198585 -0.149505 0.968614
0.147141 -0.0493615 0.987883 0.147141 -0.0493615 0.987883
0.0983716 -0.0493034 0.993928 0.0983716 -0.0493034 0.993928
0.0491267 -0.0491267 0.997584 0.0491267 -0.0491267 0.997584
0 -0.0490677 0.998796 0 -0.0490677 0.998796
0.0493034 -0.0983716 0.993928 0.0493034 -0.0983716 0.993928
0.0493615 -0.147141 0.987883 0.0493615 -0.147141 0.987883
0 -0.14673 0.989177 0 -0.14673 0.989177
0.148389 -0.0993084 0.98393 0.148389 -0.0993084 0.98393
0.0993084 -0.148389 0.98393 0.0993084 -0.148389 0.98393
0.0500019 -0.196749 0.979178 0.0500019 -0.196749 0.979178
0.149256 -0.149256 0.977469 0.149256 -0.149256 0.977469
0.149505 -0.198585 0.968614 0.149505 -0.198585 0.968614
0.149889 -0.246692 0.957432 0.149889 -0.246692 0.957432
0.10022 -0.245992 0.964077 0.10022 -0.245992 0.964077
0.0500573 -0.244677 0.968312 0.0500573 -0.244677 0.968312
0 -0.24298 0.970031 0 -0.24298 0.970031
0.0502228 -0.292247 0.955023 0.0502228 -0.292247 0.955023
0.0502772 -0.338872 0.939488 0.0502772 -0.338872 0.939488
0 -0.33689 0.941544 0 -0.33689 0.941544
0.3452 -0.102823 0.93288 0.3452 -0.102823 0.93288
0.298907 -0.152887 0.941956 0.298907 -0.152887 0.941956
0.251494 -0.202187 0.946505 0.251494 -0.202187 0.946505
0.350517 -0.155385 0.923576 0.350517 -0.155385 0.923576
0.354576 -0.207239 0.911772 0.354576 -0.207239 0.911772
0.202187 -0.251494 0.946505 0.202187 -0.251494 0.946505
0.152887 -0.298907 0.941956 0.152887 -0.298907 0.941956
0.102823 -0.3452 0.93288 0.102823 -0.3452 0.93288
0.0525839 -0.389841 0.919379 0.0525839 -0.389841 0.919379
0.155385 -0.350517 0.923576 0.155385 -0.350517 0.923576
0.207239 -0.354576 0.911772 0.207239 -0.354576 0.911772
0.157156 -0.400823 0.902576 0.157156 -0.400823 0.902576
0.25487 -0.25487 0.932782 0.25487 -0.25487 0.932782
0.257752 -0.30706 0.916121 0.257752 -0.30706 0.916121
0.259906 -0.358027 0.896809 0.259906 -0.358027 0.896809
0.30706 -0.257752 0.916121 0.30706 -0.257752 0.916121
0.358027 -0.259906 0.896809 0.358027 -0.259906 0.896809
0.359747 -0.310455 0.879886 0.359747 -0.310455 0.879886
0.310455 -0.359747 0.879886 0.310455 -0.359747 0.879886
0.259945 -0.40726 0.875539 0.259945 -0.40726 0.875539
0.360402 -0.360402 0.860361 0.360402 -0.360402 0.860361
0.359788 -0.409079 0.838575 0.359788 -0.409079 0.838575
0.361127 -0.453621 0.814748 0.361127 -0.453621 0.814748
0.31178 -0.453478 0.834956 0.31178 -0.453478 0.834956
0.261291 -0.452082 0.852848 0.261291 -0.452082 0.852848
0.210263 -0.449607 0.868126 0.210263 -0.449607 0.868126
0.26218 -0.49597 0.827814 0.26218 -0.49597 0.827814
0.262454 -0.538354 0.800808 0.262454 -0.538354 0.800808
0.211503 -0.536084 0.81724 0.211503 -0.536084 0.81724
0.157443 -0.445456 0.881352 0.157443 -0.445456 0.881352
0.105311 -0.440654 0.891478 0.105311 -0.440654 0.891478
0.0526256 -0.434605 0.899082 0.0526256 -0.434605 0.899082
0 -0.427555 0.903989 0 -0.427555 0.903989
0.0527492 -0.478554 0.876472 0.0527492 -0.478554 0.876472
0.0527896 -0.5211 0.851862 0.0527896 -0.5211 0.851862
0 -0.514103 0.857729 0 -0.514103 0.857729
0.158484 -0.489632 0.857405 0.158484 -0.489632 0.857405
0.105953 -0.527751 0.842765 0.105953 -0.527751 0.842765
0.0532225 -0.563523 0.824384 0.0532225 -0.563523 0.824384
0.15907 -0.532818 0.831145 0.15907 -0.532818 0.831145
0.159041 -0.574429 0.802955 0.159041 -0.574429 0.802955
0.159291 -0.613875 0.773165 0.159291 -0.613875 0.773165
0.106561 -0.609535 0.785564 0.106561 -0.609535 0.785564
0.0532589 -0.603404 0.795655 0.0532589 -0.603404 0.795655
0 -0.595699 0.803208 0 -0.595699 0.803208
0.0533664 -0.642036 0.764815 0.0533664 -0.642036 0.764815
0.0534014 -0.678892 0.732294 0.0534014 -0.678892 0.732294
0 -0.671559 0.740951 0 -0.671559 0.740951
0.703057 -0.106878 0.703057 0.703057 -0.106878 0.703057
0.670727 -0.160498 0.724131 0.670727 -0.160498 0.724131
0.635847 -0.213124 0.741807 0.635847 -0.213124 0.741807
0.724131 -0.160498 0.670727 0.724131 -0.160498 0.670727
0.741807 -0.213124 0.635847 0.741807 -0.213124 0.635847
0.597061 -0.267163 0.756401 0.597061 -0.267163 0.756401
0.557064 -0.317986 0.76718 0.557064 -0.317986 0.76718
0.514509 -0.367998 0.774505 0.514509 -0.367998 0.774505
0.47018 -0.416158 0.778295 0.47018 -0.416158 0.778295
0.57307 -0.372623 0.729892 0.57307 -0.372623 0.729892
0.628257 -0.374947 0.681695 0.628257 -0.374947 0.681695
0.586167 -0.425259 0.68961 0.586167 -0.425259 0.68961
0.653922 -0.268376 0.707361 0.653922 -0.268376 0.707361
0.669276 -0.322705 0.669276 0.669276 -0.322705 0.669276
0.681695 -0.374947 0.628257 0.681695 -0.374947 0.628257
0.707361 -0.268376 0.653922 0.707361 -0.268376 0.653922
0.756401 -0.267163 0.597061 0.756401 -0.267163 0.597061
0.76718 -0.317986 0.557064 0.76718 -0.317986 0.557064
0.729892 -0.372623 0.57307 0.729892 -0.372623 0.57307
0.68961 -0.425259 0.586167 0.68961 -0.425259 0.586167
0.774505 -0.367998 0.514509 0.774505 -0.367998 0.514509
0.778295 -0.416158 0.47018 0.778295 -0.416158 0.47018
0.416158 -0.47018 0.778295 0.416158 -0.47018 0.778295
0.367998 -0.514509 0.774505 0.367998 -0.514509 0.774505
0.317986 -0.557064 0.76718 0.317986 -0.557064 0.76718
0.267163 -0.597061 0.756401 0.267163 -0.597061 0.756401
0.372623 -0.57307 0.729892 0.372623 -0.57307 0.729892
0.425259 -0.586167 0.68961 0.425259 -0.586167 0.68961
0.374947 -0.628257 0.681695 0.374947 -0.628257 0.681695
0.213124 -0.635847 0.741807 0.213124 -0.635847 0.741807
0.160498 -0.670727 0.724131 0.160498 -0.670727 0.724131
0.106878 -0.703057 0.703057 0.106878 -0.703057 0.703057
0.0534014 -0.732294 0.678892 0.0534014 -0.732294 0.678892
0.160498 -0.724131 0.670727 0.160498 -0.724131 0.670727
0.213124 -0.741807 0.635847 0.213124 -0.741807 0.635847
0.159291 -0.773165 0.613875 0.159291 -0.773165 0.613875
0.268376 -0.653922 0.707361 0.268376 -0.653922 0.707361
0.268376 -0.707361 0.653922 0.268376 -0.707361 0.653922
0.267163 -0.756401 0.597061 0.267163 -0.756401 0.597061
0.322705 -0.669276 0.669276 0.322705 -0.669276 0.669276
0.374947 -0.681695 0.628257 0.374947 -0.681695 0.628257
0.425259 -0.68961 0.586167 0.425259 -0.68961 0.586167
0.372623 -0.729892 0.57307 0.372623 -0.729892 0.57307
0.317986 -0.76718 0.557064 0.317986 -0.76718 0.557064
0.262454 -0.800808 0.538354 0.262454 -0.800808 0.538354
0.367998 -0.774505 0.514509 0.367998 -0.774505 0.514509
0.416158 -0.778295 0.47018 0.416158 -0.778295 0.47018
0.361127 -0.814748 0.453621 0.361127 -0.814748 0.453621
0.477102 -0.477102 0.73807 0.477102 -0.477102 0.73807
0.481814 -0.535838 0.693349 0.481814 -0.535838 0.693349
0.484168 -0.591074 0.645145 0.484168 -0.591074 0.645145
0.535838 -0.481814 0.693349 0.535838 -0.481814 0.693349
0.591074 -0.484168 0.645145 0.591074 -0.484168 0.645145
0.484168 -0.645145 0.591074 0.484168 -0.645145 0.591074
0.481814 -0.693349 0.535838 0.481814 -0.693349 0.535838
0.477102 -0.73807 0.477102 0.477102 -0.73807 0.477102
0.47018 -0.778295 0.416158 0.47018 -0.778295 0.416158
0.535838 -0.693349 0.481814 0.535838 -0.693349 0.481814
0.591074 -0.645145 0.484168 0.591074 -0.645145 0.484168
0.586167 -0.68961 0.425259 0.586167 -0.68961 0.425259
0.540738 -0.594812 0.594812 0.540738 -0.594812 0.594812
0.594812 -0.594812 0.540738 0.594812 -0.594812 0.540738
0.645145 -0.591074 0.484168 0.645145 -0.591074 0.484168
0.594812 -0.540738 0.594812 0.594812 -0.540738 0.594812
0.645145 -0.484168 0.591074 0.645145 -0.484168 0.591074
0.693349 -0.481814 0.535838 0.693349 -0.481814 0.535838
0.693349 -0.535838 0.481814 0.693349 -0.535838 0.481814
0.68961 -0.586167 0.425259 0.68961 -0.586167 0.425259
0.73807 -0.477102 0.477102 0.73807 -0.477102 0.477102
0.778295 -0.47018 0.416158 0.778295 -0.47018 0.416158
0.774505 -0.514509 0.367998 0.774505 -0.514509 0.367998
0.729892 -0.57307 0.372623 0.729892 -0.57307 0.372623
0.681695 -0.628257 0.374947 0.681695 -0.628257 0.374947
0.76718 -0.557064 0.317986 0.76718 -0.557064 0.317986
0.756401 -0.597061 0.267163 0.756401 -0.597061 0.267163
0.628257 -0.681695 0.374947 0.628257 -0.681695 0.374947
0.57307 -0.729892 0.372623 0.57307 -0.729892 0.372623
0.514509 -0.774505 0.367998 0.514509 -0.774505 0.367998
0.453621 -0.814748 0.361127 0.453621 -0.814748 0.361127
0.557064 -0.76718 0.317986 0.557064 -0.76718 0.317986
0.597061 -0.756401 0.267163 0.597061 -0.756401 0.267163
0.538354 -0.800808 0.262454 0.538354 -0.800808 0.262454
0.669276 -0.669276 0.322705 0.669276 -0.669276 0.322705
0.653922 -0.707361 0.268376 0.653922 -0.707361 0.268376
0.635847 -0.741807 0.213124 0.635847 -0.741807 0.213124
0.707361 -0.653922 0.268376 0.707361 -0.653922 0.268376
0.741807 -0.635847 0.213124 0.741807 -0.635847 0.213124
0.724131 -0.670727 0.160498 0.724131 -0.670727 0.160498
0.670727 -0.724131 0.160498 0.670727 -0.724131 0.160498
0.613875 -0.773165 0.159291 0.613875 -0.773165 0.159291
0.703057 -0.703057 0.106878 0.703057 -0.703057 0.106878
0.678892 -0.732294 0.0534014 0.678892 -0.732294 0.0534014
0.671559 -0.740951 0 0.671559 -0.740951 0
0.642036 -0.764815 0.0533664 0.642036 -0.764815 0.0533664
0.609535 -0.785564 0.106561 0.609535 -0.785564 0.106561
0.574429 -0.802955 0.159041 0.574429 -0.802955 0.159041
0.603404 -0.795655 0.0532589 0.603404 -0.795655 0.0532589
0.595699 -0.803208 0 0.595699 -0.803208 0
0.563523 -0.824384 0.0532225 0.563523 -0.824384 0.0532225
0.536084 -0.81724 0.211503 0.536084 -0.81724 0.211503
0.49597 -0.827814 0.26218 0.49597 -0.827814 0.26218
0.453478 -0.834956 0.31178 0.453478 -0.834956 0.31178
0.409079 -0.838575 0.359788 0.409079 -0.838575 0.359788
0.452082 -0.852848 0.261291 0.452082 -0.852848 0.261291
0.449607 -0.868126 0.210263 0.449607 -0.868126 0.210263
0.40726 -0.875539 0.259945 0.40726 -0.875539 0.259945
0.532818 -0.831145 0.15907 0.532818 -0.831145 0.15907
0.489632 -0.857405 0.158484 0.489632 -0.857405 0.158484
0.445456 -0.881352 0.157443 0.445456 -0.881352 0.157443
0.527751 -0.842765 0.105953 0.527751 -0.842765 0.105953
0.5211 -0.851862 0.0527896 0.5211 -0.851862 0.0527896
0.514103 -0.857729 0 0.514103 -0.857729 0
0.478554 -0.876472 0.0527492 0.478554 -0.876472 0.0527492
0.440654 -0.891478 0.105311 0.440654 -0.891478 0.105311
0.400823 -0.902576 0.157156 0.400823 -0.902576 0.157156
0.434605 -0.899082 0.0526256 0.434605 -0.899082 0.0526256
0.427555 -0.903989 0 0.427555 -0.903989 0
0.389841 -0.919379 0.0525839 0.389841 -0.919379 0.0525839
0.359788 -0.838575 0.409079 0.359788 -0.838575 0.409079
0.31178 -0.834956 0.453478 0.31178 -0.834956 0.453478
0.26218 -0.827814 0.49597 0.26218 -0.827814 0.49597
0.211503 -0.81724 0.536084 0.211503 -0.81724 0.536084
0.261291 -0.852848 0.452082 0.261291 -0.852848 0.452082
0.259945 -0.875539 0.40726 0.259945 -0.875539 0.40726
0.210263 -0.868126 0.449607 0.210263 -0.868126 0.449607
0.159041 -0.802955 0.574429 0.159041 -0.802955 0.574429
0.106561 -0.785564 0.609535 0.106561 -0.785564 0.609535
0.0533664 -0.764815 0.642036 0.0533664 -0.764815 0.642036
0 -0.740951 0.671559 0 -0.740951 0.671559
0.0532589 -0.795655 0.603404 0.0532589 -0.795655 0.603404
0.0532225 -0.824384 0.563523 0.0532225 -0.824384 0.563523
0 -0.803208 0.595699 0 -0.803208 0.595699
0.15907 -0.831145 0.532818 0.15907 -0.831145 0.532818
0.105953 -0.842765 0.527751 0.105953 -0.842765 0.527751
0.0527896 -0.851862 0.5211 0.0527896 -0.851862 0.5211
0.158484 -0.857405 0.489632 0.158484 -0.857405 0.489632
0.157443 -0.881352 0.445456 0.157443 -0.881352 0.445456
0.157156 -0.902576 0.400823 0.157156 -0.902576 0.400823
0.105311 -0.891478 0.440654 0.105311 -0.891478 0.440654
0.0527492 -0.876472 0.478554 0.0527492 -0.876472 0.478554
0 -0.857729 0.514103 0 -0.857729 0.514103
0.0526256 -0.899082 0.434605 0.0526256 -0.899082 0.434605
0.0525839 -0.919379 0.389841 0.0525839 -0.919379 0.389841
0 -0.903989 0.427555 0 -0.903989 0.427555
0.360402 -0.860361 0.360402 0.360402 -0.860361 0.360402
0.310455 -0.879886 0.359747 0.310455 -0.879886 0.359747
0.259906 -0.896809 0.358027 0.259906 -0.896809 0.358027
0.359747 -0.879886 0.310455 0.359747 -0.879886 0.310455
0.358027 -0.896809 0.259906 0.358027 -0.896809 0.259906
0.207239 -0.911772 0.354576 0.207239 -0.911772 0.354576
0.155385 -0.923576 0.350517 0.155385 -0.923576 0.350517
0.102823 -0.93288 0.3452 0.102823 -0.93288 0.3452
0.0502772 -0.939488 0.338872 0.0502772 -0.939488 0.338872
0.152887 -0.941956 0.298907 0.152887 -0.941956 0.298907
0.202187 -0.946505 0.251494 0.202187 -0.946505 0.251494
0.149889 -0.957432 0.246692 0.149889 -0.957432 0.246692
0.257752 -0.916121 0.30706 0.257752 -0.916121 0.30706
0.25487 -0.932782 0.25487 0.25487 -0.932782 0.25487
0.251494 -0.946505 0.202187 0.251494 -0.946505 0.202187
0.30706 -0.916121 0.257752 0.30706 -0.916121 0.257752
0.354576 -0.911772 0.207239 0.354576 -0.911772 0.207239
0.350517 -0.923576 0.155385 0.350517 -0.923576 0.155385
0.298907 -0.941956 0.152887 0.298907 -0.941956 0.152887
0.246692 -0.957432 0.149889 0.246692 -0.957432 0.149889
0.3452 -0.93288 0.102823 0.3452 -0.93288 0.102823
0.338872 -0.939488 0.0502772 0.338872 -0.939488 0.0502772
0.33689 -0.941544 0 0.33689 -0.941544 0
0.292247 -0.955023 0.0502228 0.292247 -0.955023 0.0502228
0.245992 -0.964077 0.10022 0.245992 -0.964077 0.10022
0.198585 -0.968614 0.149505 0.198585 -0.968614 0.149505
0.244677 -0.968312 0.0500573 0.244677 -0.968312 0.0500573
0.24298 -0.970031 0 0.24298 -0.970031 0
0.196749 -0.979178 0.0500019 0.196749 -0.979178 0.0500019
0.149505 -0.968614 0.198585 0.149505 -0.968614 0.198585
0.10022 -0.964077 0.245992 0.10022 -0.964077 0.245992
0.0502228 -0.955023 0.292247 0.0502228 -0.955023 0.292247
0 -0.941544 0.33689 0 -0.941544 0.33689
0.0500573 -0.968312 0.244677 0.0500573 -0.968312 0.244677
0.0500019 -0.979178 0.196749 0.0500019 -0.979178 0.196749
0 -0.970031 0.24298 0 -0.970031 0.24298
0.149256 -0.977469 0.149256 0.149256 -0.977469 0.149256
0.0993084 -0.98393 0.148389 0.0993084 -0.98393 0.148389
0.0493615 -0.987883 0.147141 0.0493615 -0.987883 0.147141
0.148389 -0.98393 0.0993084 0.148389 -0.98393 0.0993084
0.147141 -0.987883 0.0493615 0.147141 -0.987883 0.0493615
0.14673 -0.989177 0 0.14673 -0.989177 0
0.0983716 -0.993928 0.0493034 0.0983716 -0.993928 0.0493034
0.0493034 -0.993928 0.0983716 0.0493034 -0.993928 0.0983716
0 -0.989177 0.14673 0 -0.989177 0.14673
0.0491267 -0.997584 0.0491267 0.0491267 -0.997584 0.0491267
0.0490677 -0.998796 0 0.0490677 -0.998796 0
0 -0.998796 0.0490677 0 -0.998796 0.0490677
0 -0.0490677 -0.998796 0 -0.0490677 -0.998796
0.0491267 -0.0491267 -0.997584 0.0491267 -0.0491267 -0.997584
0.0983716 -0.0493034 -0.993928 0.0983716 -0.0493034 -0.993928
0.147141 -0.0493615 -0.987883 0.147141 -0.0493615 -0.987883
0.0493034 -0.0983716 -0.993928 0.0493034 -0.0983716 -0.993928
0 -0.14673 -0.989177 0 -0.14673 -0.989177
0.0493615 -0.147141 -0.987883 0.0493615 -0.147141 -0.987883
0.196749 -0.0500019 -0.979178 0.196749 -0.0500019 -0.979178
0.244677 -0.0500573 -0.968312 0.244677 -0.0500573 -0.968312
0.292247 -0.0502228 -0.955023 0.292247 -0.0502228 -0.955023
0.338872 -0.0502772 -0.939488 0.338872 -0.0502772 -0.939488
0.245992 -0.10022 -0.964077 0.245992 -0.10022 -0.964077
0.198585 -0.149505 -0.968614 0.198585 -0.149505 -0.968614
0.246692 -0.149889 -0.957432 0.246692 -0.149889 -0.957432
0.148389 -0.0993084 -0.98393 0.148389 -0.0993084 -0.98393
0.149256 -0.149256 -0.977469 0.149256 -0.149256 -0.977469
0.149505 -0.198585 -0.968614 0.149505 -0.198585 -0.968614
0.0993084 -0.148389 -0.98393 0.0993084 -0.148389 -0.98393
0.0500019 -0.196749 -0.979178 0.0500019 -0.196749 -0.979178
0 -0.24298 -0.970031 0 -0.24298 -0.970031
0.0500573 -0.244677 -0.968312 0.0500573 -0.244677 -0.968312
0.10022 -0.245992 -0.964077 0.10022 -0.245992 -0.964077
0.149889 -0.246692 -0.957432 0.149889 -0.246692 -0.957432
0.0502228 -0.292247 -0.955023 0.0502228 -0.292247 -0.955023
0 -0.33689 -0.941544 0 -0.33689 -0.941544
0.0502772 -0.338872 -0.939488 0.0502772 -0.338872 -0.939488
0.389841 -0.0525839 -0.919379 0.389841 -0.0525839 -0.919379
0.434605 -0.0526256 -0.899082 0.434605 -0.0526256 -0.899082
0.478554 -0.0527492 -0.876472 0.478554 -0.0527492 -0.876472
0.5211 -0.0527896 -0.851862 0.5211 -0.0527896 -0.851862
0.440654 -0.105311 -0.891478 0.440654 -0.105311 -0.891478
0.400823 -0.157156 -0.902576 0.400823 -0.157156 -0.902576
0.445456 -0.157443 -0.881352 0.445456 -0.157443 -0.881352
0.563523 -0.0532225 -0.824384 0.563523 -0.0532225 -0.824384
0.603404 -0.0532589 -0.795655 0.603404 -0.0532589 -0.795655
0.642036 -0.0533664 -0.764815 0.642036 -0.0533664 -0.764815
0.678892 -0.0534014 -0.732294 0.678892 -0.0534014 -0.732294
0.609535 -0.106561 -0.785564 0.609535 -0.106561 -0.785564
0.574429 -0.159041 -0.802955 0.574429 -0.159041 -0.802955
0.613875 -0.159291 -0.773165 0.613875 -0.159291 -0.773165
0.527751 -0.105953 -0.842765 0.527751 -0.105953 -0.842765
0.532818 -0.15907 -0.831145 0.532818 -0.15907 -0.831145
0.536084 -0.211503 -0.81724 0.536084 -0.211503 -0.81724
0.489632 -0.158484 -0.857405 0.489632 -0.158484 -0.857405
0.449607 -0.210263 -0.868126 0.449607 -0.210263 -0.868126
0.40726 -0.259945 -0.875539 0.40726 -0.259945 -0.875539
0.452082 -0.261291 -0.852848 0.452082 -0.261291 -0.852848
0.49597 -0.26218 -0.827814 0.49597 -0.26218 -0.827814
0.538354 -0.262454 -0.800808 0.538354 -0.262454 -0.800808
0.453478 -0.31178 -0.834956 0.453478 -0.31178 -0.834956
0.409079 -0.359788 -0.838575 0.409079 -0.359788 -0.838575
0.453621 -0.361127 -0.814748 0.453621 -0.361127 -0.814748
0.3452 -0.102823 -0.93288 0.3452 -0.102823 -0.93288
0.350517 -0.155385 -0.923576 0.350517 -0.155385 -0.923576
0.354576 -0.207239 -0.911772 0.354576 -0.207239 -0.911772
0.298907 -0.152887 -0.941956 0.298907 -0.152887 -0.941956
0.251494 -0.202187 -0.946505 0.251494 -0.202187 -0.946505
0.358027 -0.259906 -0.896809 0.358027 -0.259906 -0.896809
0.359747 -0.310455 -0.879886 0.359747 -0.310455 -0.879886
0.360402 -0.360402 -0.860361 0.360402 -0.360402 -0.860361
0.359788 -0.409079 -0.838575 0.359788 -0.409079 -0.838575
0.310455 -0.359747 -0.879886 0.310455 -0.359747 -0.879886
0.259906 -0.358027 -0.896809 0.259906 -0.358027 -0.896809
0.259945 -0.40726 -0.875539 0.259945 -0.40726 -0.875539
0.30706 -0.257752 -0.916121 0.30706 -0.257752 -0.916121
0.257752 -0.30706 -0.916121 0.257752 -0.30706 -0.916121
0.207239 -0.354576 -0.911772 0.207239 -0.354576 -0.911772
0.25487 -0.25487 -0.932782 0.25487 -0.25487 -0.932782
0.202187 -0.251494 -0.946505 0.202187 -0.251494 -0.946505
0.152887 -0.298907 -0.941956 0.152887 -0.298907 -0.941956
0.155385 -0.350517 -0.923576 0.155385 -0.350517 -0.923576
0.157156 -0.400823 -0.902576 0.157156 -0.400823 -0.902576
0.102823 -0.3452 -0.93288 0.102823 -0.3452 -0.93288
0.0525839 -0.389841 -0.919379 0.0525839 -0.389841 -0.919379
0 -0.427555 -0.903989 0 -0.427555 -0.903989
0.0526256 -0.434605 -0.899082 0.0526256 -0.434605 -0.899082
0.105311 -0.440654 -0.891478 0.105311 -0.440654 -0.891478
0.157443 -0.445456 -0.881352 0.157443 -0.445456 -0.881352
0.0527492 -0.478554 -0.876472 0.0527492 -0.478554 -0.876472
0 -0.514103 -0.857729 0 -0.514103 -0.857729
0.0527896 -0.5211 -0.851862 0.0527896 -0.5211 -0.851862
0.210263 -0.449607 -0.868126 0.210263 -0.449607 -0.868126
0.261291 -0.452082 -0.852848 0.261291 -0.452082 -0.852848
0.31178 -0.453478 -0.834956 0.31178 -0.453478 -0.834956
0.361127 -0.453621 -0.814748 0.361127 -0.453621 -0.814748
0.26218 -0.49597 -0.827814 0.26218 -0.49597 -0.827814
0.211503 -0.536084 -0.81724 0.211503 -0.536084 -0.81724
0.262454 -0.538354 -0.800808 0.262454 -0.538354 -0.800808
0.158484 -0.489632 -0.857405 0.158484 -0.489632 -0.857405
0.15907 -0.532818 -0.831145 0.15907 -0.532818 -0.831145
0.159041 -0.574429 -0.802955 0.159041 -0.574429 -0.802955
0.105953 -0.527751 -0.842765 0.105953 -0.527751 -0.842765
0.0532225 -0.563523 -0.824384 0.0532225 -0.563523 -0.824384
0 -0.595699 -0.803208 0 -0.595699 -0.803208
0.0532589 -0.603404 -0.795655 0.0532589 -0.603404 -0.795655
0.106561 -0.609535 -0.785564 0.106561 -0.609535 -0.785564
0.159291 -0.613875 -0.773165 0.159291 -0.613875 -0.773165
0.0533664 -0.642036 -0.764815 0.0533664 -0.642036 -0.764815
0 -0.671559 -0.740951 0 -0.671559 -0.740951
0.0534014 -0.678892 -0.732294 0.0534014 -0.678892 -0.732294
0.732294 -0.0534014 -0.678892 0.732294 -0.0534014 -0.678892
0.764815 -0.0533664 -0.642036 0.764815 -0.0533664 -0.642036
0.795655 -0.0532589 -0.603404 0.795655 -0.0532589 -0.603404
0.824384 -0.0532225 -0.563523 0.824384 -0.0532225 -0.563523
0.785564 -0.106561 -0.609535 0.785564 -0.106561 -0.609535
0.773165 -0.159291 -0.613875 0.773165 -0.159291 -0.613875
0.802955 -0.159041 -0.574429 0.802955 -0.159041 -0.574429
0.851862 -0.0527896 -0.5211 0.851862 -0.0527896 -0.5211
0.876472 -0.0527492 -0.478554 0.876472 -0.0527492 -0.478554
0.899082 -0.0526256 -0.434605 0.899082 -0.0526256 -0.434605
0.919379 -0.0525839 -0.389841 0.919379 -0.0525839 -0.389841
0.891478 -0.105311 -0.440654 0.891478 -0.105311 -0.440654
0.881352 -0.157443 -0.445456 0.881352 -0.157443 -0.445456
0.902576 -0.157156 -0.400823 0.902576 -0.157156 -0.400823
0.842765 -0.105953 -0.527751 0.842765 -0.105953 -0.527751
0.857405 -0.158484 -0.489632 0.857405 -0.158484 -0.489632
0.868126 -0.210263 -0.449607 0.868126 -0.210263 -0.449607
0.831145 -0.15907 -0.532818 0.831145 -0.15907 -0.532818
0.81724 -0.211503 -0.536084 0.81724 -0.211503 -0.536084
0.800808 -0.262454 -0.538354 0.800808 -0.262454 -0.538354
0.827814 -0.26218 -0.49597 0.827814 -0.26218 -0.49597
0.852848 -0.261291 -0.452082 0.852848 -0.261291 -0.452082
0.875539 -0.259945 -0.40726 0.875539 -0.259945 -0.40726
0.834956 -0.31178 -0.453478 0.834956 -0.31178 -0.453478
0.814748 -0.361127 -0.453621 0.814748 -0.361127 -0.453621
0.838575 -0.359788 -0.409079 0.838575 -0.359788 -0.409079
0.939488 -0.0502772 -0.338872 0.939488 -0.0502772 -0.338872
0.955023 -0.0502228 -0.292247 0.955023 -0.0502228 -0.292247
0.968312 -0.0500573 -0.244677 0.968312 -0.0500573 -0.244677
0.979178 -0.0500019 -0.196749 0.979178 -0.0500019 -0.196749
0.964077 -0.10022 -0.245992 0.964077 -0.10022 -0.245992
0.957432 -0.149889 -0.246692 0.957432 -0.149889 -0.246692
0.968614 -0.149505 -0.198585 0.968614 -0.149505 -0.198585
0.987883 -0.0493615 -0.147141 0.987883 -0.0493615 -0.147141
0.993928 -0.0493034 -0.0983716 0.993928 -0.0493034 -0.0983716
0.997584 -0.0491267 -0.0491267 0.997584 -0.0491267 -0.0491267
0.993928 -0.0983716 -0.0493034 0.993928 -0.0983716 -0.0493034
0.987883 -0.147141 -0.0493615 0.987883 -0.147141 -0.0493615
0.98393 -0.0993084 -0.148389 0.98393 -0.0993084 -0.148389
0.98393 -0.148389 -0.0993084 0.98393 -0.148389 -0.0993084
0.979178 -0.196749 -0.0500019 0.979178 -0.196749 -0.0500019
0.977469 -0.149256 -0.149256 0.977469 -0.149256 -0.149256
0.968614 -0.198585 -0.149505 0.968614 -0.198585 -0.149505
0.957432 -0.246692 -0.149889 0.957432 -0.246692 -0.149889
0.964077 -0.245992 -0.10022 0.964077 -0.245992 -0.10022
0.968312 -0.244677 -0.0500573 0.968312 -0.244677 -0.0500573
0.955023 -0.292247 -0.0502228 0.955023 -0.292247 -0.0502228
0.939488 -0.338872 -0.0502772 0.939488 -0.338872 -0.0502772
0.93288 -0.102823 -0.3452 0.93288 -0.102823 -0.3452
0.941956 -0.152887 -0.298907 0.941956 -0.152887 -0.298907
0.946505 -0.202187 -0.251494 0.946505 -0.202187 -0.251494
0.923576 -0.155385 -0.350517 0.923576 -0.155385 -0.350517
0.911772 -0.207239 -0.354576 0.911772 -0.207239 -0.354576
0.946505 -0.251494 -0.202187 0.946505 -0.251494 -0.202187
0.941956 -0.298907 -0.152887 0.941956 -0.298907 -0.152887
0.93288 -0.3452 -0.102823 0.93288 -0.3452 -0.102823
0.919379 -0.389841 -0.0525839 0.919379 -0.389841 -0.0525839
0.923576 -0.350517 -0.155385 0.923576 -0.350517 -0.155385
0.911772 -0.354576 -0.207239 0.911772 -0.354576 -0.207239
0.902576 -0.400823 -0.157156 0.902576 -0.400823 -0.157156
0.932782 -0.25487 -0.25487 0.932782 -0.25487 -0.25487
0.916121 -0.30706 -0.257752 0.916121 -0.30706 -0.257752
0.896809 -0.358027 -0.259906 0.896809 -0.358027 -0.259906
0.916121 -0.257752 -0.30706 0.916121 -0.257752 -0.30706
0.896809 -0.259906 -0.358027 0.896809 -0.259906 -0.358027
0.879886 -0.310455 -0.359747 0.879886 -0.310455 -0.359747
0.879886 -0.359747 -0.310455 0.879886 -0.359747 -0.310455
0.875539 -0.40726 -0.259945 0.875539 -0.40726 -0.259945
0.860361 -0.360402 -0.360402 0.860361 -0.360402 -0.360402
0.838575 -0.409079 -0.359788 0.838575 -0.409079 -0.359788
0.814748 -0.453621 -0.361127 0.814748 -0.453621 -0.361127
0.834956 -0.453478 -0.31178 0.834956 -0.453478 -0.31178
0.852848 -0.452082 -0.261291 0.852848 -0.452082 -0.261291
0.868126 -0.449607 -0.210263 0.868126 -0.449607 -0.210263
0.827814 -0.49597 -0.26218 0.827814 -0.49597 -0.26218
0.800808 -0.538354 -0.262454 0.800808 -0.538354 -0.262454
0.81724 -0.536084 -0.211503 0.81724 -0.536084 -0.211503
0.881352 -0.445456 -0.157443 0.881352 -0.445456 -0.157443
0.891478 -0.440654 -0.105311 0.891478 -0.440654 -0.105311
0.899082 -0.434605 -0.0526256 0.899082 -0.434605 -0.0526256
0.876472 -0.478554 -0.0527492 0.876472 -0.478554 -0.0527492
0.851862 -0.5211 -0.0527896 0.851862 -0.5211 -0.0527896
0.857405 -0.489632 -0.158484 0.857405 -0.489632 -0.158484
0.842765 -0.527751 -0.105953 0.842765 -0.527751 -0.105953
0.824384 -0.563523 -0.0532225 0.824384 -0.563523 -0.0532225
0.831145 -0.532818 -0.15907 0.831145 -0.532818 -0.15907
0.802955 -0.574429 -0.159041 0.802955 -0.574429 -0.159041
0.773165 -0.613875 -0.159291 0.773165 -0.613875 -0.159291
0.785564 -0.609535 -0.106561 0.785564 -0.609535 -0.106561
0.795655 -0.603404 -0.0532589 0.795655 -0.603404 -0.0532589
0.764815 -0.642036 -0.0533664 0.764815 -0.642036 -0.0533664
0.732294 -0.678892 -0.0534014 0.732294 -0.678892 -0.0534014
0.703057 -0.106878 -0.703057 0.703057 -0.106878 -0.703057
0.724131 -0.160498 -0.670727 0.724131 -0.160498 -0.670727
0.741807 -0.213124 -0.635847 0.741807 -0.213124 -0.635847
0.670727 -0.160498 -0.724131 0.670727 -0.160498 -0.724131
0.635847 -0.213124 -0.741807 0.635847 -0.213124 -0.741807
0.756401 -0.267163 -0.597061 0.756401 -0.267163 -0.597061
0.76718 -0.317986 -0.557064 0.76718 -0.317986 -0.557064
0.774505 -0.367998 -0.514509 0.774505 -0.367998 -0.514509
0.778295 -0.416158 -0.47018 0.778295 -0.416158 -0.47018
0.729892 -0.372623 -0.57307 0.729892 -0.372623 -0.57307
0.681695 -0.374947 -0.628257 0.681695 -0.374947 -0.628257
0.68961 -0.425259 -0.586167 0.68961 -0.425259 -0.586167
0.707361 -0.268376 -0.653922 0.707361 -0.268376 -0.653922
0.669276 -0.322705 -0.669276 0.669276 -0.322705 -0.669276
0.628257 -0.374947 -0.681695 0.628257 -0.374947 -0.681695
0.653922 -0.268376 -0.707361 0.653922 -0.268376 -0.707361
0.597061 -0.267163 -0.756401 0.597061 -0.267163 -0.756401
0.557064 -0.317986 -0.76718 0.557064 -0.317986 -0.76718
0.57307 -0.372623 -0.729892 0.57307 -0.372623 -0.729892
0.586167 -0.425259 -0.68961 0.586167 -0.425259 -0.68961
0.514509 -0.367998 -0.774505 0.514509 -0.367998 -0.774505
0.47018 -0.416158 -0.778295 0.47018 -0.416158 -0.778295
0.778295 -0.47018 -0.416158 0.778295 -0.47018 -0.416158
0.774505 -0.514509 -0.367998 0.774505 -0.514509 -0.367998
0.76718 -0.557064 -0.317986 0.76718 -0.557064 -0.317986
0.756401 -0.597061 -0.267163 0.756401 -0.597061 -0.267163
0.729892 -0.57307 -0.372623 0.729892 -0.57307 -0.372623
0.68961 -0.586167 -0.425259 0.68961 -0.586167 -0.425259
0.681695 -0.628257 -0.374947 0.681695 -0.628257 -0.374947
0.741807 -0.635847 -0.213124 0.741807 -0.635847 -0.213124
0.724131 -0.670727 -0.160498 0.724131 -0.670727 -0.160498
0.703057 -0.703057 -0.106878 0.703057 -0.703057 -0.106878
0.678892 -0.732294 -0.0534014 0.678892 -0.732294 -0.0534014
0.670727 -0.724131 -0.160498 0.670727 -0.724131 -0.160498
0.635847 -0.741807 -0.213124 0.635847 -0.741807 -0.213124
0.613875 -0.773165 -0.159291 0.613875 -0.773165 -0.159291
0.707361 -0.653922 -0.268376 0.707361 -0.653922 -0.268376
0.653922 -0.707361 -0.268376 0.653922 -0.707361 -0.268376
0.597061 -0.756401 -0.267163 0.597061 -0.756401 -0.267163
0.669276 -0.669276 -0.322705 0.669276 -0.669276 -0.322705
0.628257 -0.681695 -0.374947 0.628257 -0.681695 -0.374947
0.586167 -0.68961 -0.425259 0.586167 -0.68961 -0.425259
0.57307 -0.729892 -0.372623 0.57307 -0.729892 -0.372623
0.557064 -0.76718 -0.317986 0.557064 -0.76718 -0.317986
0.538354 -0.800808 -0.262454 0.538354 -0.800808 -0.262454
0.514509 -0.774505 -0.367998 0.514509 -0.774505 -0.367998
0.47018 -0.778295 -0.416158 0.47018 -0.778295 -0.416158
0.453621 -0.814748 -0.361127 0.453621 -0.814748 -0.361127
0.73807 -0.477102 -0.477102 0.73807 -0.477102 -0.477102
0.693349 -0.535838 -0.481814 0.693349 -0.535838 -0.481814
0.645145 -0.591074 -0.484168 0.645145 -0.591074 -0.484168
0.693349 -0.481814 -0.535838 0.693349 -0.481814 -0.535838
0.645145 -0.484168 -0.591074 0.645145 -0.484168 -0.591074
0.591074 -0.645145 -0.484168 0.591074 -0.645145 -0.484168
0.535838 -0.693349 -0.481814 0.535838 -0.693349 -0.481814
0.477102 -0.73807 -0.477102 0.477102 -0.73807 -0.477102
0.416158 -0.778295 -0.47018 0.416158 -0.778295 -0.47018
0.481814 -0.693349 -0.535838 0.481814 -0.693349 -0.535838
0.484168 -0.645145 -0.591074 0.484168 -0.645145 -0.591074
0.425259 -0.68961 -0.586167 0.425259 -0.68961 -0.586167
0.594812 -0.594812 -0.540738 0.594812 -0.594812 -0.540738
0.540738 -0.594812 -0.594812 0.540738 -0.594812 -0.594812
0.484168 -0.591074 -0.645145 0.484168 -0.591074 -0.645145
0.594812 -0.540738 -0.594812 0.594812 -0.540738 -0.594812
0.591074 -0.484168 -0.645145 0.591074 -0.484168 -0.645145
0.535838 -0.481814 -0.693349 0.535838 -0.481814 -0.693349
0.481814 -0.535838 -0.693349 0.481814 -0.535838 -0.693349
0.425259 -0.586167 -0.68961 0.425259 -0.586167 -0.68961
0.477102 -0.477102 -0.73807 0.477102 -0.477102 -0.73807
0.416158 -0.47018 -0.778295 0.416158 -0.47018 -0.778295
0.367998 -0.514509 -0.774505 0.367998 -0.514509 -0.774505
0.372623 -0.57307 -0.729892 0.372623 -0.57307 -0.729892
0.374947 -0.628257 -0.681695 0.374947 -0.628257 -0.681695
0.317986 -0.557064 -0.76718 0.317986 -0.557064 -0.76718
0.267163 -0.597061 -0.756401 0.267163 -0.597061 -0.756401
0.374947 -0.681695 -0.628257 0.374947 -0.681695 -0.628257
0.372623 -0.729892 -0.57307 0.372623 -0.729892 -0.57307
0.367998 -0.774505 -0.514509 0.367998 -0.774505 -0.514509
0.361127 -0.814748 -0.453621 0.361127 -0.814748 -0.453621
0.317986 -0.76718 -0.557064 0.317986 -0.76718 -0.557064
0.267163 -0.756401 -0.597061 0.267163 -0.756401 -0.597061
0.262454 -0.800808 -0.538354 0.262454 -0.800808 -0.538354
0.322705 -0.669276 -0.669276 0.322705 -0.669276 -0.669276
0.268376 -0.707361 -0.653922 0.268376 -0.707361 -0.653922
0.213124 -0.741807 -0.635847 0.213124 -0.741807 -0.635847
0.268376 -0.653922 -0.707361 0.268376 -0.653922 -0.707361
0.213124 -0.635847 -0.741807 0.213124 -0.635847 -0.741807
0.160498 -0.670727 -0.724131 0.160498 -0.670727 -0.724131
0.160498 -0.724131 -0.670727 0.160498 -0.724131 -0.670727
0.159291 -0.773165 -0.613875 0.159291 -0.773165 -0.613875
0.106878 -0.703057 -0.703057 0.106878 -0.703057 -0.703057
0.0534014 -0.732294 -0.678892 0.0534014 -0.732294 -0.678892
0 -0.740951 -0.671559 0 -0.740951 -0.671559
0.0533664 -0.764815 -0.642036 0.0533664 -0.764815 -0.642036
0.106561 -0.785564 -0.609535 0.106561 -0.785564 -0.609535
0.159041 -0.802955 -0.574429 0.159041 -0.802955 -0.574429
0.0532589 -0.795655 -0.603404 0.0532589 -0.795655 -0.603404
0 -0.803208 -0.595699 0 -0.803208 -0.595699
0.0532225 -0.824384 -0.563523 0.0532225 -0.824384 -0.563523
0.211503 -0.81724 -0.536084 0.211503 -0.81724 -0.536084
0.26218 -0.827814 -0.49597 0.26218 -0.827814 -0.49597
0.31178 -0.834956 -0.453478 0.31178 -0.834956 -0.453478
0.359788 -0.838575 -0.409079 0.359788 -0.838575 -0.409079
0.261291 -0.852848 -0.452082 0.261291 -0.852848 -0.452082
0.210263 -0.868126 -0.449607 0.210263 -0.868126 -0.449607
0.259945 -0.875539 -0.40726 0.259945 -0.875539 -0.40726
0.15907 -0.831145 -0.532818 0.15907 -0.831145 -0.532818
0.158484 -0.857405 -0.489632 0.158484 -0.857405 -0.489632
0.157443 -0.881352 -0.445456 0.157443 -0.881352 -0.445456
0.105953 -0.842765 -0.527751 0.105953 -0.842765 -0.527751
0.0527896 -0.851862 -0.5211 0.0527896 -0.851862 -0.5211
0 -0.857729 -0.514103 0 -0.857729 -0.514103
0.0527492 -0.876472 -0.478554 0.0527492 -0.876472 -0.478554
0.105311 -0.891478 -0.440654 0.105311 -0.891478 -0.440654
0.157156 -0.902576 -0.400823 0.157156 -0.902576 -0.400823
0.0526256 -0.899082 -0.434605 0.0526256 -0.899082 -0.434605
0 -0.903989 -0.427555 0 -0.903989 -0.427555
0.0525839 -0.919379 -0.389841 0.0525839 -0.919379 -0.389841
0.409079 -0.838575 -0.359788 0.409079 -0.838575 -0.359788
0.453478 -0.834956 -0.31178 0.453478 -0.834956 -0.31178
0.49597 -0.827814 -0.26218 0.49597 -0.827814 -0.26218
0.536084 -0.81724 -0.211503 0.536084 -0.81724 -0.211503
0.452082 -0.852848 -0.261291 0.452082 -0.852848 -0.261291
0.40726 -0.875539 -0.259945 0.40726 -0.875539 -0.259945
0.449607 -0.868126 -0.210263 0.449607 -0.868126 -0.210263
0.574429 -0.802955 -0.159041 0.574429 -0.802955 -0.159041
0.609535 -0.785564 -0.106561 0.609535 -0.785564 -0.106561
0.642036 -0.764815 -0.0533664 0.642036 -0.764815 -0.0533664
0.603404 -0.795655 -0.0532589 0.603404 -0.795655 -0.0532589
0.563523 -0.824384 -0.0532225 0.563523 -0.824384 -0.0532225
0.532818 -0.831145 -0.15907 0.532818 -0.831145 -0.15907
0.527751 -0.842765 -0.105953 0.527751 -0.842765 -0.105953
0.5211 -0.851862 -0.0527896 0.5211 -0.851862 -0.0527896
0.489632 -0.857405 -0.158484 0.489632 -0.857405 -0.158484
0.445456 -0.881352 -0.157443 0.445456 -0.881352 -0.157443
0.400823 -0.902576 -0.157156 0.400823 -0.902576 -0.157156
0.440654 -0.891478 -0.105311 0.440654 -0.891478 -0.105311
0.478554 -0.876472 -0.0527492 0.478554 -0.876472 -0.0527492
0.434605 -0.899082 -0.0526256 0.434605 -0.899082 -0.0526256
0.389841 -0.919379 -0.0525839 0.389841 -0.919379 -0.0525839
0.360402 -0.860361 -0.360402 0.360402 -0.860361 -0.360402
0.359747 -0.879886 -0.310455 0.359747 -0.879886 -0.310455
0.358027 -0.896809 -0.259906 0.358027 -0.896809 -0.259906
0.310455 -0.879886 -0.359747 0.310455 -0.879886 -0.359747
0.259906 -0.896809 -0.358027 0.259906 -0.896809 -0.358027
0.354576 -0.911772 -0.207239 0.354576 -0.911772 -0.207239
0.350517 -0.923576 -0.155385 0.350517 -0.923576 -0.155385
0.3452 -0.93288 -0.102823 0.3452 -0.93288 -0.102823
0.338872 -0.939488 -0.0502772 0.338872 -0.939488 -0.0502772
0.298907 -0.941956 -0.152887 0.298907 -0.941956 -0.152887
0.251494 -0.946505 -0.202187 0.251494 -0.946505 -0.202187
0.246692 -0.957432 -0.149889 0.246692 -0.957432 -0.149889
0.30706 -0.916121 -0.257752 0.30706 -0.916121 -0.257752
0.25487 -0.932782 -0.25487 0.25487 -0.932782 -0.25487
0.202187 -0.946505 -0.251494 0.202187 -0.946505 -0.251494
0.257752 -0.916121 -0.30706 0.257752 -0.916121 -0.30706
0.207239 -0.911772 -0.354576 0.207239 -0.911772 -0.354576
0.155385 -0.923576 -0.350517 0.155385 -0.923576 -0.350517
0.152887 -0.941956 -0.298907 0.152887 -0.941956 -0.298907
0.149889 -0.957432 -0.246692 0.149889 -0.957432 -0.246692
0.102823 -0.93288 -0.3452 0.102823 -0.93288 -0.3452
0.0502772 -0.939488 -0.338872 0.0502772 -0.939488 -0.338872
0 -0.941544 -0.33689 0 -0.941544 -0.33689
0.0502228 -0.955023 -0.292247 0.0502228 -0.955023 -0.292247
0.10022 -0.964077 -0.245992 0.10022 -0.964077 -0.245992
0.149505 -0.968614 -0.198585 0.149505 -0.968614 -0.198585
0.0500573 -0.968312 -0.244677 0.0500573 -0.968312 -0.244677
0 -0.970031 -0.24298 0 -0.970031 -0.24298
0.0500019 -0.979178 -0.196749 0.0500019 -0.979178 -0.196749
0.198585 -0.968614 -0.149505 0.198585 -0.968614 -0.149505
0.245992 -0.964077 -0.10022 0.245992 -0.964077 -0.10022
0.292247 -0.955023 -0.0502228 0.292247 -0.955023 -0.0502228
0.244677 -0.968312 -0.0500573 0.244677 -0.968312 -0.0500573
0.196749 -0.979178 -0.0500019 0.196749 -0.979178 -0.0500019
0.149256 -0.977469 -0.149256 0.149256 -0.977469 -0.149256
0.148389 -0.98393 -0.0993084 0.148389 -0.98393 -0.0993084
0.147141 -0.987883 -0.0493615 0.147141 -0.987883 -0.0493615
0.0993084 -0.98393 -0.148389 0.0993084 -0.98393 -0.148389
0.0493615 -0.987883 -0.147141 0.0493615 -0.987883 -0.147141
0 -0.989177 -0.14673 0 -0.989177 -0.14673
0.0493034 -0.993928 -0.0983716 0.0493034 -0.993928 -0.0983716
0.0983716 -0.993928 -0.0493034 0.0983716 -0.993928 -0.0493034
0.0491267 -0.997584 -0.0491267 0.0491267 -0.997584 -0.0491267
0 -0.998796 -0.0490677 0 -0.998796 -0.0490677
-0.0490677 0.998796 0 -0.0490677 0.998796 0
-0.0491267 0.997584 0.0491267 -0.0491267 0.997584 0.0491267
-0.14673 0.989177 0 -0.14673 0.989177 0
-0.0983716 0.993928 0.0493034 -0.0983716 0.993928 0.0493034
-0.147141 0.987883 0.0493615 -0.147141 0.987883 0.0493615
-0.0493034 0.993928 0.0983716 -0.0493034 0.993928 0.0983716
-0.0493615 0.987883 0.147141 -0.0493615 0.987883 0.147141
-0.24298 0.970031 0 -0.24298 0.970031 0
-0.196749 0.979178 0.0500019 -0.196749 0.979178 0.0500019
-0.244677 0.968312 0.0500573 -0.244677 0.968312 0.0500573
-0.33689 0.941544 0 -0.33689 0.941544 0
-0.292247 0.955023 0.0502228 -0.292247 0.955023 0.0502228
-0.338872 0.939488 0.0502772 -0.338872 0.939488 0.0502772
-0.245992 0.964077 0.10022 -0.245992 0.964077 0.10022
-0.198585 0.968614 0.149505 -0.198585 0.968614 0.149505
-0.246692 0.957432 0.149889 -0.246692 0.957432 0.149889
-0.148389 0.98393 0.0993084 -0.148389 0.98393 0.0993084
-0.149256 0.977469 0.149256 -0.149256 0.977469 0.149256
-0.149505 0.968614 0.198585 -0.149505 0.968614 0.198585
-0.0993084 0.98393 0.148389 -0.0993084 0.98393 0.148389
-0.0500019 0.979178 0.196749 -0.0500019 0.979178 0.196749
-0.0500573 0.968312 0.244677 -0.0500573 0.968312 0.244677
-0.10022 0.964077 0.245992 -0.10022 0.964077 0.245992
-0.149889 0.957432 0.246692 -0.149889 0.957432 0.246692
-0.0502228 0.955023 0.292247 -0.0502228 0.955023 0.292247
-0.0502772 0.939488 0.338872 -0.0502772 0.939488 0.338872
-0.427555 0.903989 0 -0.427555 0.903989 0
-0.389841 0.919379 0.0525839 -0.389841 0.919379 0.0525839
-0.434605 0.899082 0.0526256 -0.434605 0.899082 0.0526256
-0.514103 0.857729 0 -0.514103 0.857729 0
-0.478554 0.876472 0.0527492 -0.478554 0.876472 0.0527492
-0.5211 0.851862 0.0527896 -0.5211 0.851862 0.0527896
-0.440654 0.891478 0.105311 -0.440654 0.891478 0.105311
-0.400823 0.902576 0.157156 -0.400823 0.902576 0.157156
-0.445456 0.881352 0.157443 -0.445456 0.881352 0.157443
-0.595699 0.803208 0 -0.595699 0.803208 0
-0.563523 0.824384 0.0532225 -0.563523 0.824384 0.0532225
-0.603404 0.795655 0.0532589 -0.603404 0.795655 0.0532589
-0.671559 0.740951 0 -0.671559 0.740951 0
-0.642036 0.764815 0.0533664 -0.642036 0.764815 0.0533664
-0.678892 0.732294 0.0534014 -0.678892 0.732294 0.0534014
-0.609535 0.785564 0.106561 -0.609535 0.785564 0.106561
-0.574429 0.802955 0.159041 -0.574429 0.802955 0.159041
-0.613875 0.773165 0.159291 -0.613875 0.773165 0.159291
-0.527751 0.842765 0.105953 -0.527751 0.842765 0.105953
-0.532818 0.831145 0.15907 -0.532818 0.831145 0.15907
-0.536084 0.81724 0.211503 -0.536084 0.81724 0.211503
-0.489632 0.857405 0.158484 -0.489632 0.857405 0.158484
-0.449607 0.868126 0.210263 -0.449607 0.868126 0.210263
-0.40726 0.875539 0.259945 -0.40726 0.875539 0.259945
-0.452082 0.852848 0.261291 -0.452082 0.852848 0.261291
-0.49597 0.827814 0.26218 -0.49597 0.827814 0.26218
-0.538354 0.800808 0.262454 -0.538354 0.800808 0.262454
-0.453478 0.834956 0.31178 -0.453478 0.834956 0.31178
-0.409079 0.838575 0.359788 -0.409079 0.838575 0.359788
-0.453621 0.814748 0.361127 -0.453621 0.814748 0.361127
-0.3452 0.93288 0.102823 -0.3452 0.93288 0.102823
-0.350517 0.923576 0.155385 -0.350517 0.923576 0.155385
-0.354576 0.911772 0.207239 -0.354576 0.911772 0.207239
-0.298907 0.941956 0.152887 -0.298907 0.941956 0.152887
-0.251494 0.946505 0.202187 -0.251494 0.946505 0.202187
-0.358027 0.896809 0.259906 -0.358027 0.896809 0.259906
-0.359747 0.879886 0.310455 -0.359747 0.879886 0.310455
-0.360402 0.860361 0.360402 -0.360402 0.860361 0.360402
-0.359788 0.838575 0.409079 -0.359788 0.838575 0.409079
-0.310455 0.879886 0.359747 -0.310455 0.879886 0.359747
-0.259906 0.896809 0.358027 -0.259906 0.896809 0.358027
-0.259945 0.875539 0.40726 -0.259945 0.875539 0.40726
-0.30706 0.916121 0.257752 -0.30706 0.916121 0.257752
